2.309612 6.835238 0.125937 
2.336498 6.914806 0.127403 
0.000000 0.000000 0.000000 
0.000000 0.000000 0.000000 
0.000000 0.000000 0.000000 
0.000000 0.000000 0.000000 
0.000000 0.000000 0.000000 
0.000000 0.000000 0.000000 
1.246253 5.715832 -1.350606 
1.244592 5.708216 -1.348807 
1.325825 5.701902 -1.351506 
1.328473 5.713290 -1.354205 
1.408581 5.696077 -1.354655 
1.408114 5.694185 -1.354205 
1.487481 5.669940 -1.353306 
1.488470 5.673710 -1.354205 
1.570719 5.667672 -1.357805 
1.570719 5.667672 -1.357805 
1.649699 5.645189 -1.357805 
1.647513 5.637707 -1.356005 
1.726640 5.616017 -1.356455 
1.729503 5.625330 -1.358704 
1.805702 5.597240 -1.357805 
1.805702 5.597240 -1.357805 
1.882079 5.569966 -1.357355 
1.885199 5.579197 -1.359604 
1.965181 5.555663 -1.360504 
1.967781 5.563012 -1.362304 
2.043620 5.533524 -1.361854 
2.040244 5.524384 -1.359604 
2.125585 5.517180 -1.365003 
2.125585 5.517180 -1.365003 
4.827035 22.138783 1.187503 
4.833843 22.170004 1.189178 
5.151269 22.153774 1.192004 
5.160768 22.194628 1.194202 
5.482137 22.168880 1.196819 
5.493165 22.213472 1.199226 
1.853949 7.066833 0.382890 
1.831142 6.979898 0.378180 
1.919203 6.925117 0.376610 
1.908002 6.884697 0.374411 
2.000020 6.843967 0.373679 
1.994977 6.826714 0.372737 
2.087164 6.788649 0.372213 
2.091860 6.803921 0.373051 
2.190990 6.791540 0.373993 
2.204480 6.833357 0.376296 
2.309356 6.834479 0.378075 
2.335570 6.912058 0.382367 
0.000000 0.000000 0.000000 
0.000000 0.000000 0.000000 
0.000000 0.000000 0.000000 
0.000000 0.000000 0.000000 
6.806217 17.666260 0.992185 
0.000000 0.000000 0.000000 
1.437048 6.590898 -1.311239 
1.438721 6.598570 -1.312766 
1.530008 6.580019 -1.313148 
1.530008 6.580019 -1.313148 
1.621730 6.558015 -1.313148 
1.624086 6.567544 -1.315056 
1.721749 6.562919 -1.318872 
1.716269 6.542030 -1.314674 
1.806830 6.519637 -1.315056 
1.805257 6.513960 -1.313911 
1.900986 6.505080 -1.317345 
1.903189 6.512618 -1.318872 
1.990472 6.474151 -1.316582 
1.987587 6.464768 -1.314674 
2.082560 6.455434 -1.318490 
2.083163 6.457303 -1.318872 
2.173882 6.433547 -1.320017 
2.171368 6.426106 -1.318490 
2.264613 6.402172 -1.320017 
2.265923 6.405874 -1.320780 
2.355390 6.377707 -1.321543 
2.356070 6.379548 -1.321925 
2.447736 6.353358 -1.323451 
2.447030 6.351526 -1.323070 
4.819510 22.104271 1.979307 
4.828424 22.145149 1.982967 
5.143673 22.121107 1.986977 
5.151344 22.154097 1.989940 
5.471162 22.124498 1.993949 
5.483119 22.172852 1.998307 
1.851956 7.059238 0.638503 
1.832744 6.986006 0.631879 
1.916120 6.913992 0.627696 
1.902285 6.864071 0.623164 
1.994025 6.823455 0.621943 
1.991790 6.815806 0.621246 
2.088516 6.793045 0.621769 
2.087345 6.789236 0.621420 
2.184424 6.771188 0.622466 
2.199106 6.816696 0.626650 
2.306914 6.827254 0.630485 
2.333702 6.906530 0.637806 
0.000000 0.000000 0.000000 
6.648163 18.794680 1.744161 
6.797606 18.405928 1.716619 
6.700970 18.144268 1.692216 
6.821855 17.706850 1.660143 
6.741632 17.498621 1.640620 
1.685365 7.729782 -1.253040 
1.683261 7.720132 -1.251476 
1.792675 7.709659 -1.253666 
1.796702 7.726975 -1.256482 
1.901093 7.687713 -1.254292 
1.774954 7.177627 -1.171068 
1.850178 7.052461 -1.154799 
1.838649 7.008514 -1.147603 
1.924027 6.942521 -1.141033 
1.916113 6.913967 -1.136340 
2.009136 6.875164 -1.134463 
2.010244 6.878955 -1.135088 
2.110738 6.865323 -1.137591 
2.117123 6.886093 -1.141033 
2.215504 6.867527 -1.142910 
2.230060 6.912647 -1.150419 
2.343495 6.935514 -1.159492 
2.543951 7.528757 -1.258672 
2.652763 7.499490 -1.259923 
2.654081 7.503215 -1.260549 
2.758649 7.469615 -1.261175 
2.766177 7.489998 -1.264616 
2.874035 7.459862 -1.266181 
2.877585 7.469079 -1.267745 
3.118777 14.304002 1.797573 
3.117931 14.300122 1.797085 
3.319296 14.275109 1.799523 
3.310304 14.236440 1.794648 
3.500175 14.154145 1.790261 
3.489215 14.109823 1.784655 
1.847692 7.042984 0.894033 
1.828551 6.970020 0.884771 
1.914934 6.909712 0.880384 
1.904861 6.873366 0.875753 
1.992847 6.819424 0.872341 
1.990063 6.809897 0.871122 
2.086700 6.787140 0.871853 
2.091951 6.804217 0.874047 
2.191051 6.791730 0.876241 
2.195927 6.806844 0.878191 
2.297830 6.800368 0.881359 
2.328967 6.892519 0.893302 
0.000000 0.000000 0.000000 
4.708694 13.311707 1.733713 
4.872527 13.193378 1.726889 
4.864275 13.171033 1.723964 
5.035564 13.070342 1.719820 
5.027714 13.049967 1.717139 
2.036191 9.338816 -1.173602 
2.036614 9.340755 -1.173846 
2.167006 9.319522 -1.174820 
2.167006 9.319522 -1.174820 
2.301681 9.307628 -1.177258 
1.777012 7.185951 -0.908902 
1.849204 7.048745 -0.894765 
1.832580 6.985381 -0.886721 
1.923417 6.940320 -0.884284 
1.920236 6.928843 -0.882822 
2.015120 6.895640 -0.882090 
2.008438 6.872775 -0.879165 
2.103618 6.842166 -0.878922 
2.112368 6.870627 -0.882578 
2.216649 6.871077 -0.886478 
2.231276 6.916418 -0.892327 
2.341677 6.930132 -0.898177 
3.099147 9.171846 -1.188714 
3.235779 9.147704 -1.191395 
3.240413 9.160805 -1.193101 
3.373288 9.133878 -1.195538 
3.374663 9.137602 -1.196026 
3.506911 9.102560 -1.197732 
3.514048 9.121083 -1.200169 
2.166357 9.935810 1.610649 
2.166357 9.935810 1.610649 
2.299564 9.889605 1.608146 
2.295537 9.872288 1.605330 
2.432678 9.837358 1.605018 
2.428884 9.822017 1.602515 
1.843662 7.027621 1.150732 
1.820102 6.937818 1.136027 
1.900286 6.856858 1.126954 
1.892900 6.830207 1.122574 
1.986418 6.797424 1.121635 
1.982540 6.784152 1.119445 
2.073585 6.744481 1.117568 
2.075907 6.752034 1.118819 
2.177295 6.749090 1.123199 
2.187605 6.781049 1.128518 
2.300495 6.808257 1.138217 
2.320098 6.866271 1.147916 
3.314801 9.371104 1.574356 
3.310849 9.359930 1.572479 
3.440270 9.315245 1.572792 
3.434111 9.298568 1.569976 
3.557923 9.234967 1.567473 
3.549401 9.212847 1.563719 
2.572952 11.800624 -1.056676 
2.574650 11.808411 -1.057374 
2.741728 11.791196 -1.059117 
2.744435 11.802839 -1.060162 
2.910874 11.771108 -1.060860 
1.773022 7.169815 -0.646173 
1.848417 7.045748 -0.637283 
1.836789 7.001423 -0.633274 
1.924634 6.944712 -0.630485 
1.913460 6.904392 -0.626824 
2.009115 6.875091 -0.626650 
2.009674 6.877003 -0.626824 
2.108423 6.857795 -0.627696 
2.108423 6.857795 -0.627696 
2.210116 6.850827 -0.629787 
2.223574 6.892542 -0.633622 
2.341993 6.931068 -0.640072 
2.800570 8.288214 -0.765402 
2.880250 8.142608 -0.755640 
2.856331 8.074987 -0.749365 
2.952900 7.995589 -0.745705 
2.937024 7.952602 -0.741695 
3.041327 7.894087 -0.740127 
3.037029 7.882932 -0.739081 
1.617725 7.419555 1.476098 
1.666240 7.642065 1.520366 
1.787010 7.685293 1.533723 
1.787899 7.689118 1.534486 
1.888955 7.638629 1.529525 
1.883771 7.617665 1.525327 
1.840319 7.014879 1.409697 
1.815908 6.921828 1.390998 
1.901209 6.860186 1.383747 
1.893344 6.831807 1.378023 
1.980286 6.776439 1.372298 
1.976431 6.763248 1.369627 
2.075861 6.751883 1.373062 
2.078168 6.759389 1.374588 
2.173578 6.737567 1.376114 
2.183222 6.767462 1.382220 
2.289520 6.775776 1.390234 
2.315287 6.852034 1.405881 
2.565121 7.251723 1.495179 
2.508162 7.090697 1.461979 
2.600247 7.040708 1.458926 
2.681866 7.261708 1.504720 
2.781582 7.219892 1.503957 
2.780170 7.216228 1.503193 
0.000000 0.000000 0.000000 
0.000000 0.000000 0.000000 
0.000000 0.000000 0.000000 
0.000000 0.000000 0.000000 
2.516202 10.175117 -0.549318 
1.770643 7.160195 -0.386553 
1.846853 7.039786 -0.381424 
1.834183 6.991489 -0.378808 
1.919737 6.927042 -0.376714 
1.914936 6.909719 -0.375772 
2.005062 6.861221 -0.374621 
2.003941 6.857387 -0.374411 
2.103011 6.840193 -0.375039 
2.108294 6.857375 -0.375982 
2.210612 6.852365 -0.377342 
2.219810 6.880877 -0.378912 
2.335570 6.912058 -0.382367 
2.838743 8.401188 -0.464743 
2.919260 8.252891 -0.458777 
2.882628 8.149329 -0.453020 
2.964269 8.026373 -0.448414 
2.946278 7.977660 -0.445693 
3.049478 7.915245 -0.444542 
0.000000 0.000000 0.000000 
1.351699 6.199450 1.464881 
1.345472 6.170890 1.458133 
1.428660 6.144160 1.456333 
1.429543 6.147956 1.457233 
1.515243 6.127397 1.457233 
1.515243 6.127397 1.457233 
1.600723 6.101594 1.456333 
1.598745 6.094055 1.454534 
1.656073 5.975657 1.431589 
1.605069 5.791617 1.387498 
1.665005 5.697563 1.370402 
1.658445 5.675117 1.365003 
1.691133 5.500530 1.328561 
0.000000 0.000000 0.000000 
1.927159 5.973728 1.449135 
1.927159 5.973728 1.449135 
1.994368 5.902281 1.438337 
1.984387 5.872742 1.431139 
2.071759 5.856963 1.434288 
2.071759 5.856963 1.434288 
2.152316 5.827841 1.434288 
2.146239 5.811388 1.430239 
2.220164 5.762671 1.425740 
2.222966 5.769945 1.427539 
0.000000 0.000000 0.000000 
0.000000 0.000000 0.000000 
0.000000 0.000000 0.000000 
0.000000 0.000000 0.000000 
2.534633 10.249647 -0.184297 
1.770883 7.161165 -0.128764 
1.846062 7.036768 -0.126984 
1.833883 6.990346 -0.126146 
1.914602 6.908512 -0.125134 
1.911397 6.896950 -0.124924 
2.004142 6.858074 -0.124715 
2.005264 6.861913 -0.124785 
2.100876 6.833246 -0.124785 
2.105577 6.848537 -0.125064 
2.207783 6.843596 -0.125518 
2.218221 6.875948 -0.126111 
2.335858 6.912912 -0.127368 
2.873573 8.504265 -0.156688 
2.950162 8.340252 -0.154419 
2.978170 8.419432 -0.155885 
3.069031 8.310039 -0.154628 
3.069031 8.310039 -0.154628 
3.127245 8.117098 -0.151836 
3.135872 8.139490 -0.152255 
1.120632 5.139682 1.409528 
1.121455 5.143457 1.410564 
1.193140 5.131269 1.411599 
1.187889 5.108689 1.405387 
1.258174 5.087855 1.404352 
1.258174 5.087855 1.404352 
1.331935 5.077034 1.406423 
1.330464 5.071429 1.404870 
1.397681 5.043294 1.402282 
1.394586 5.032124 1.399176 
1.463626 5.008454 1.398140 
1.463626 5.008454 1.398140 
1.535683 4.994916 1.400211 
1.532276 4.983837 1.397105 
1.599067 4.956721 1.395552 
1.599067 4.956721 1.395552 
1.667256 4.934203 1.395552 
1.667875 4.936033 1.396070 
1.732333 4.897391 1.391929 
1.696257 4.795400 1.362941 
1.795677 4.862167 1.388823 
1.797685 4.867604 1.390376 
1.865472 4.842030 1.390376 
1.859915 4.827609 1.386235 
0.245399 5.146401 -1.380541 
0.245399 5.146401 -1.380541 
0.315977 5.136744 -1.378988 
0.315858 5.134815 -1.378470 
0.388707 5.133690 -1.379506 
0.389583 5.145248 -1.382611 
0.459797 5.131691 -1.380541 
0.459452 5.127842 -1.379506 
0.529808 5.109398 -1.376400 
0.531402 5.124771 -1.380541 
0.602451 5.113015 -1.379506 
0.603807 5.124526 -1.382611 
0.674286 5.107935 -1.380541 
0.673781 5.104105 -1.379506 
0.744980 5.094200 -1.379506 
0.746657 5.105669 -1.382611 
0.816981 5.094889 -1.382611 
0.815758 5.087259 -1.380541 
0.887593 5.075218 -1.380541 
0.888924 5.082830 -1.382611 
0.960356 5.077684 -1.384682 
0.962510 5.089073 -1.387788 
1.031544 5.065673 -1.385200 
1.031158 5.063780 -1.384682 
1.400855 29.378139 0.513380 
1.049498 22.009636 0.384616 
1.344020 21.849367 0.382103 
1.341810 21.813440 0.381475 
1.652764 21.828184 0.382103 
1.669371 22.047522 0.385943 
1.977123 22.066227 0.386710 
1.978550 22.082161 0.386990 
2.289354 22.078241 0.387443 
1.495092 14.418484 0.253025 
1.689006 14.334640 0.251943 
1.686900 14.316766 0.251629 
1.889508 14.313624 0.252013 
1.896050 14.363187 0.252885 
3.230695 22.091619 0.389712 
3.237639 22.139107 0.390550 
0.000000 0.000000 0.000000 
0.000000 0.000000 0.000000 
0.000000 0.000000 0.000000 
0.000000 0.000000 0.000000 
3.365016 17.791821 0.316063 
3.370961 17.823257 0.316622 
3.629859 17.825401 0.317529 
3.619484 17.774454 0.316622 
0.276874 5.806494 -1.342058 
0.276782 5.804548 -1.341608 
0.357265 5.807960 -1.343408 
0.357145 5.806015 -1.342958 
0.437863 5.782897 -1.338909 
0.437863 5.782897 -1.338909 
0.518772 5.789897 -1.342058 
0.519120 5.793779 -1.342958 
0.600365 5.789843 -1.343858 
0.599159 5.778213 -1.341158 
0.679777 5.769284 -1.341158 
0.680233 5.773155 -1.342058 
0.761793 5.770823 -1.343858 
0.762048 5.772755 -1.344308 
0.840882 5.749983 -1.341608 
0.842292 5.759624 -1.343858 
0.921932 5.749387 -1.344308 
0.923475 5.759008 -1.346557 
1.005803 5.751137 -1.347907 
1.003788 5.739619 -1.345207 
1.082829 5.725234 -1.345207 
1.084278 5.732893 -1.347007 
1.164993 5.721014 -1.347907 
1.169271 5.742019 -1.352856 
1.397911 29.316412 1.538154 
1.047744 21.972845 1.152856 
1.342383 21.822746 1.145843 
1.340543 21.792845 1.144273 
1.651956 21.817522 1.146681 
1.667187 22.018669 1.157253 
1.972753 22.017462 1.158509 
1.957959 21.852350 1.149821 
1.511398 14.575739 0.767978 
1.494301 14.410851 0.759290 
1.687649 14.323125 0.755836 
1.685546 14.305273 0.754894 
1.886421 14.290245 0.755417 
1.895570 14.359549 0.759081 
3.227915 22.072609 1.169081 
3.233406 22.110157 1.171069 
3.541108 22.083195 1.172116 
3.547433 22.122637 1.174209 
3.866012 22.105690 1.176094 
3.871862 22.139135 1.177873 
4.181937 22.111122 1.179338 
4.188989 22.148409 1.181327 
4.505792 22.126905 1.183421 
4.514161 22.168003 1.185619 
0.318771 6.685138 -1.300936 
0.317930 6.667489 -1.297501 
0.409588 6.658553 -1.296738 
0.409829 6.662472 -1.297501 
0.503973 6.656013 -1.297501 
0.505159 6.671674 -1.300554 
0.596222 6.654297 -1.298646 
0.595696 6.648431 -1.297501 
0.689679 6.651183 -1.299791 
0.691299 6.666805 -1.302844 
0.782018 6.637005 -1.299028 
0.782937 6.644804 -1.300554 
0.876150 6.637118 -1.301317 
0.877692 6.648796 -1.303607 
0.971290 6.641721 -1.304752 
0.972711 6.651434 -1.306660 
1.063393 6.631575 -1.305515 
1.064637 6.639329 -1.307042 
1.158389 6.623615 -1.307042 
1.158389 6.623615 -1.307042 
1.253616 6.628234 -1.311239 
1.251427 6.616659 -1.308950 
1.342121 6.590847 -1.307423 
1.343688 6.598542 -1.308950 
1.052971 22.082462 1.934160 
1.049555 22.010818 1.927885 
1.339232 21.771528 1.908362 
1.337764 21.747663 1.906270 
1.648530 21.772274 1.910280 
1.665679 21.998758 1.930151 
1.970966 21.997515 1.932243 
1.971855 22.007437 1.933114 
1.504837 14.512456 1.276483 
1.491068 14.379678 1.264804 
1.685633 14.306011 1.260272 
1.683535 14.288203 1.258703 
1.883647 14.269230 1.259226 
1.889905 14.316636 1.263410 
3.221774 22.030621 1.947931 
3.228693 22.077934 1.952114 
3.536891 22.056894 1.954380 
3.540045 22.076567 1.956123 
3.856243 22.049829 1.958390 
3.863794 22.093008 1.962224 
4.175814 22.078745 1.965885 
4.183219 22.117899 1.969371 
4.498384 22.090527 1.972335 
4.502359 22.110050 1.974078 
0.372769 7.817560 -1.239587 
0.373616 7.835318 -1.242403 
0.482096 7.837309 -1.243654 
0.481611 7.829422 -1.242403 
0.591947 7.817892 -1.241777 
0.591947 7.817892 -1.241777 
0.700386 7.816857 -1.243028 
0.700386 7.816857 -1.243028 
0.809662 7.808281 -1.243341 
0.809866 7.810246 -1.243654 
0.919760 7.806025 -1.244905 
0.921147 7.817795 -1.246783 
1.027625 7.784588 -1.243654 
1.029176 7.796339 -1.245531 
1.138216 7.783164 -1.245844 
1.139359 7.790982 -1.247096 
1.245732 7.768681 -1.246157 
1.249798 7.794037 -1.250224 
1.358834 7.769753 -1.249286 
1.359174 7.771698 -1.249599 
1.468034 7.761924 -1.251163 
1.470971 7.777452 -1.253666 
1.577841 7.748414 -1.252414 
1.578235 7.750349 -1.252727 
0.724339 15.190533 1.867282 
0.723488 15.172687 1.865088 
0.933103 15.169195 1.866063 
0.932128 15.153344 1.864113 
1.143105 15.097085 1.858995 
1.088550 14.376574 1.770274 
1.282060 14.308792 1.763937 
0.000000 0.000000 0.000000 
1.504648 14.510641 1.791236 
1.489702 14.366503 1.773443 
1.682944 14.283188 1.765887 
1.680853 14.265445 1.763693 
1.882983 14.264202 1.766618 
1.889478 14.313402 1.772712 
0.000000 0.000000 0.000000 
2.105226 14.395621 1.786361 
2.362911 14.735677 1.832428 
2.320795 14.473029 1.799766 
2.491992 14.249100 1.776124 
2.491308 14.245189 1.775636 
2.693381 14.240693 1.779536 
2.698177 14.266050 1.782705 
2.903041 14.256165 1.786361 
2.912151 14.300903 1.791967 
0.452322 9.485904 -1.166046 
0.452984 9.499784 -1.167752 
0.583189 9.480747 -1.166290 
0.584652 9.504523 -1.169214 
0.718656 9.491349 -1.168727 
0.719106 9.497288 -1.169458 
0.850337 9.490424 -1.169946 
0.849806 9.484493 -1.169214 
0.983785 9.487499 -1.171164 
0.983375 9.483550 -1.170677 
1.114994 9.462981 -1.169946 
1.116620 9.476782 -1.171652 
1.250646 9.474044 -1.173358 
1.248048 9.454363 -1.170921 
1.384239 9.465479 -1.174577 
1.382515 9.453694 -1.173114 
1.511785 9.427854 -1.172383 
1.511471 9.425894 -1.172139 
1.647991 9.423139 -1.174577 
1.645939 9.411407 -1.173114 
1.774437 9.381967 -1.172383 
1.774806 9.383917 -1.172627 
1.907237 9.366003 -1.173602 
1.909218 9.375729 -1.174820 
0.491506 10.307656 1.634427 
0.490565 10.287925 1.631299 
0.632365 10.280183 1.631299 
0.632122 10.276239 1.630673 
0.776436 10.254458 1.628796 
0.776436 10.254458 1.628796 
0.917042 10.234908 1.627544 
0.915632 10.219169 1.625041 
1.059447 10.217177 1.626918 
1.058632 10.209318 1.625667 
1.200611 10.189618 1.625041 
1.198762 10.173923 1.622538 
1.339661 10.148361 1.621287 
1.339920 10.150319 1.621600 
1.477222 10.101303 1.616907 
1.454926 9.948845 1.592503 
1.616355 10.079975 1.616907 
1.616355 10.079975 1.616907 
1.758010 10.052227 1.616281 
1.758010 10.052227 1.616281 
1.894237 10.015387 1.614404 
1.893136 10.009563 1.613465 
2.031524 9.976349 1.612526 
2.029948 9.968606 1.611275 
0.571561 11.986542 -1.049878 
0.572131 11.998483 -1.050924 
0.736651 11.975533 -1.049704 
0.736162 11.967579 -1.049006 
0.906624 11.973857 -1.050575 
0.907827 11.989750 -1.051970 
1.075185 11.999907 -1.054062 
1.074296 11.989985 -1.053190 
1.238516 11.944090 -1.050575 
1.238105 11.940126 -1.050227 
1.405627 11.929591 -1.050924 
1.404927 11.923655 -1.050401 
1.571270 11.902877 -1.050401 
1.572835 11.914728 -1.051447 
1.742209 11.913292 -1.053364 
1.744515 11.929064 -1.054759 
1.909139 11.905844 -1.054933 
1.908823 11.903876 -1.054759 
2.075541 11.867852 -1.054062 
2.078287 11.883554 -1.055456 
2.242676 11.857684 -1.055805 
2.243787 11.863557 -1.056328 
2.411197 11.840835 -1.057199 
2.407619 11.823263 -1.055630 
0.378149 7.930390 1.543263 
0.378243 7.932351 1.543645 
0.487817 7.930301 1.544408 
0.486611 7.910706 1.540592 
0.597801 7.895205 1.539065 
0.597949 7.897163 1.539447 
0.707126 7.892079 1.540210 
0.706776 7.888168 1.539447 
0.816235 7.871673 1.538302 
0.815223 7.861909 1.536394 
0.925602 7.855609 1.537539 
0.925143 7.851710 1.536776 
1.035964 7.847759 1.538684 
1.034679 7.838027 1.536776 
1.142026 7.809219 1.534104 
1.142026 7.809219 1.534104 
1.251143 7.802423 1.536012 
1.250521 7.798546 1.535249 
1.358612 7.768486 1.532959 
1.357598 7.762683 1.531815 
1.464133 7.741299 1.531433 
1.464498 7.743227 1.531815 
1.575210 7.735492 1.534486 
1.535251 7.539267 1.495561 
0.772442 16.199337 -0.849936 
0.773299 16.217293 -0.850878 
0.998786 16.236984 -0.852553 
0.997191 16.211069 -0.851192 
1.224453 16.171453 -0.849936 
1.225057 16.179420 -0.850355 
1.448729 16.168949 -0.850773 
1.449621 16.178896 -0.851297 
1.507691 14.539980 -0.766094 
1.496567 14.432703 -0.760441 
1.694193 14.378664 -0.758767 
1.695362 14.388582 -0.759290 
1.901320 14.403111 -0.761383 
1.914651 14.504094 -0.766722 
2.357138 16.118202 -0.853704 
2.360317 16.139940 -0.854856 
2.587368 16.135445 -0.856426 
2.593060 16.170942 -0.858310 
2.824845 16.152342 -0.859356 
2.833791 16.203495 -0.862078 
3.045053 16.100084 -0.858728 
3.053961 16.147182 -0.861241 
3.298243 16.196909 -0.866265 
0.000000 0.000000 0.000000 
0.304163 6.378774 1.474329 
0.303420 6.363202 1.470730 
0.391723 6.368138 1.472980 
0.391843 6.370084 1.473429 
0.481267 6.356135 1.471630 
0.481267 6.356135 1.471630 
0.568336 6.343072 1.470280 
0.567988 6.339190 1.469380 
0.657045 6.336457 1.470730 
0.657246 6.338396 1.471180 
0.746136 6.332472 1.472080 
0.744311 6.316989 1.468480 
0.833713 6.315641 1.470730 
0.832438 6.305981 1.468480 
0.920966 6.297600 1.469380 
0.919274 6.286031 1.466681 
1.004005 6.261214 1.463982 
1.004313 6.263138 1.464431 
1.094432 6.257912 1.466681 
1.094096 6.255993 1.466231 
1.177350 6.224995 1.462632 
1.176988 6.223080 1.462182 
1.263761 6.206040 1.462182 
1.265316 6.213678 1.463982 
1.178173 24.708158 -0.431773 
1.047784 21.973682 -0.383988 
1.345125 21.867331 -0.382417 
1.345739 21.877310 -0.382592 
1.661973 21.949818 -0.384232 
1.676165 22.137251 -0.387513 
1.981762 22.118011 -0.387618 
1.983547 22.137930 -0.387967 
1.503342 14.498045 -0.254421 
1.495092 14.418484 -0.253025 
1.693920 14.376345 -0.252676 
1.691346 14.354499 -0.252292 
1.896050 14.363187 -0.252885 
1.909921 14.468260 -0.254735 
2.943940 20.130777 -0.355122 
2.939889 20.103077 -0.354633 
0.000000 0.000000 0.000000 
0.000000 0.000000 0.000000 
3.116288 17.818796 -0.315749 
3.103197 17.743944 -0.314423 
3.349779 17.711262 -0.314632 
0.000000 0.000000 0.000000 
3.606317 17.709791 -0.315470 
3.619884 17.776415 -0.316656 
0.252944 5.304633 1.422987 
0.253404 5.314281 1.425575 
0.325940 5.298713 1.422469 
0.325465 5.291000 1.420399 
0.400522 5.289723 1.421434 
0.400813 5.293576 1.422469 
0.474451 5.295243 1.424540 
0.474106 5.291395 1.423505 
0.545947 5.265044 1.418328 
0.546943 5.274652 1.420917 
0.620988 5.270338 1.421952 
0.620762 5.268419 1.421434 
0.692743 5.247747 1.418328 
0.692995 5.249662 1.418846 
0.765386 5.233741 1.417293 
0.765107 5.231829 1.416775 
0.837780 5.224597 1.417811 
0.836863 5.218875 1.416258 
0.908227 5.193202 1.412634 
0.907894 5.191299 1.412117 
0.980102 5.182085 1.413152 
0.981538 5.189678 1.415223 
1.050818 5.160323 1.411081 
1.050047 5.156537 1.410046 
-0.610887 5.100339 -1.376400 
-0.609739 5.090749 -1.373811 
-0.539288 5.096751 -1.373294 
-0.540101 5.104435 -1.375364 
-0.468239 5.115408 -1.376400 
-0.468415 5.117332 -1.376917 
-0.397067 5.113674 -1.374329 
-0.397067 5.113674 -1.374329 
-0.326121 5.126431 -1.376400 
-0.326366 5.130287 -1.377435 
-0.255985 5.142017 -1.379506 
-0.255312 5.128510 -1.375882 
-0.183890 5.137367 -1.377435 
-0.183890 5.137367 -1.377435 
-0.112227 5.143297 -1.378470 
-0.112354 5.149091 -1.380023 
-0.040389 5.142430 -1.377953 
-0.040389 5.142430 -1.377953 
0.030539 5.146362 -1.378988 
0.030585 5.154089 -1.381058 
0.102622 5.157023 -1.382094 
0.102429 5.147366 -1.379506 
0.173130 5.137741 -1.377435 
0.173520 5.149325 -1.380541 
0.000000 0.000000 0.000000 
0.000000 0.000000 0.000000 
0.000000 0.000000 0.000000 
0.000000 0.000000 0.000000 
0.000000 0.000000 0.000000 
0.000000 0.000000 0.000000 
0.000000 0.000000 0.000000 
0.000000 0.000000 0.000000 
0.000000 0.000000 0.000000 
0.000000 0.000000 0.000000 
0.000000 0.000000 0.000000 
0.000000 0.000000 0.000000 
0.000000 0.000000 0.000000 
0.000000 0.000000 0.000000 
0.000000 0.000000 0.000000 
0.000000 0.000000 0.000000 
0.000000 0.000000 0.000000 
0.000000 0.000000 0.000000 
0.307434 51.807198 0.904314 
0.262840 44.292473 0.773142 
0.733155 36.843094 0.643226 
0.732797 36.825100 0.642912 
0.990401 29.390839 0.513310 
0.987235 29.296906 0.511670 
-0.689461 5.756359 -1.338459 
-0.689461 5.756359 -1.338459 
-0.609619 5.761442 -1.337559 
-0.609619 5.761442 -1.337559 
-0.527577 5.763663 -1.336209 
-0.527577 5.763663 -1.336209 
-0.448060 5.770389 -1.336209 
-0.448965 5.782046 -1.338909 
-0.367696 5.779972 -1.337109 
-0.366830 5.766358 -1.333960 
-0.288066 5.786438 -1.337559 
-0.288647 5.798116 -1.340258 
-0.207525 5.797687 -1.339359 
-0.207386 5.793791 -1.338459 
-0.126174 5.782485 -1.335310 
-0.126557 5.800019 -1.339359 
-0.045594 5.805118 -1.340258 
-0.045717 5.820707 -1.343858 
0.034391 5.795451 -1.338009 
0.034414 5.799348 -1.338909 
0.115499 5.804148 -1.340258 
0.115654 5.811941 -1.342058 
0.195907 5.813689 -1.342958 
0.195382 5.798109 -1.339359 
-7.490012 62.534611 3.300724 
-8.906354 74.359749 3.924883 
-7.889927 74.566841 3.929698 
-8.373709 79.139008 4.170652 
0.000000 0.000000 0.000000 
-7.206591 78.730362 4.143333 
-6.118543 78.798347 4.142077 
-6.118543 78.798347 4.142077 
-5.017369 78.870117 4.141763 
-5.015594 78.842209 4.140297 
-3.926379 78.869957 4.138518 
-3.927670 78.895889 4.139879 
-2.825014 78.923080 4.138832 
-2.825228 78.929062 4.139146 
-1.722975 78.962814 4.139251 
-1.723454 78.984779 4.140402 
0.000000 0.000000 0.000000 
-0.464925 59.194935 3.102371 
0.307000 51.734089 2.711317 
0.262472 44.230522 2.318064 
0.731824 36.776241 1.927743 
0.731427 36.756271 1.926696 
0.988589 29.337065 1.538363 
0.986436 29.273190 1.535014 
-0.793825 6.627695 -1.297501 
-0.792891 6.619897 -1.295975 
-0.701129 6.626295 -1.295211 
-0.703195 6.645819 -1.299028 
-0.608817 6.651186 -1.298264 
-0.607385 6.635545 -1.295211 
-0.515991 6.645246 -1.295593 
-0.515991 6.645246 -1.295593 
-0.424405 6.671395 -1.299409 
-0.425028 6.681192 -1.301317 
-0.332089 6.670730 -1.298264 
-0.332479 6.678574 -1.299791 
-0.239340 6.686489 -1.300554 
-0.239059 6.678641 -1.299028 
-0.145873 6.685253 -1.299791 
-0.145530 6.669551 -1.296738 
-0.052394 6.670933 -1.296738 
-0.052472 6.680748 -1.298646 
0.039680 6.686727 -1.299791 
0.039704 6.690653 -1.300554 
0.133038 6.685521 -1.299791 
0.132881 6.677670 -1.298264 
0.225335 6.686975 -1.300554 
0.224938 6.675202 -1.298264 
-2.628879 21.948685 1.933986 
-2.626509 21.928904 1.932243 
-2.321815 21.943218 1.930500 
-2.320767 21.933311 1.929628 
-2.010833 21.967896 1.929977 
-2.009562 21.954008 1.928757 
-1.705597 21.965723 1.927536 
-1.704209 21.947845 1.925968 
-1.398488 21.983419 1.927188 
-1.398109 21.977453 1.926665 
-1.095652 22.008572 1.927885 
-1.094760 21.990662 1.926316 
-0.787616 22.003803 1.926316 
-0.787473 21.999821 1.925968 
-0.480622 22.026600 1.927536 
-0.480622 22.026600 1.927536 
-0.173020 22.029171 1.927362 
-0.173036 22.031162 1.927536 
0.130810 22.043407 1.928582 
0.130881 22.055363 1.929628 
0.439047 22.063337 1.930674 
0.439047 22.063337 1.930674 
0.743207 22.055187 1.930674 
0.743744 22.071115 1.932068 
-0.931690 7.778747 -1.240838 
-0.933805 7.796399 -1.243654 
-0.824767 7.794782 -1.241464 
-0.824767 7.794782 -1.241464 
-0.715752 7.819432 -1.243654 
-0.715212 7.813531 -1.242715 
-0.607720 7.826588 -1.243341 
-0.606802 7.814772 -1.241464 
-0.497381 7.818539 -1.240838 
-0.497883 7.826425 -1.242090 
-0.390517 7.844383 -1.243967 
-0.390320 7.840437 -1.243341 
-0.280742 7.843149 -1.243028 
-0.280388 7.833278 -1.241464 
-0.171336 7.852229 -1.243967 
-0.171293 7.850254 -1.243654 
-0.061778 7.865707 -1.245844 
-0.061623 7.845954 -1.242715 
0.046537 7.842107 -1.242090 
0.046548 7.844083 -1.242403 
0.156064 7.842668 -1.242403 
0.155986 7.838718 -1.241777 
0.263782 7.827925 -1.240525 
0.263782 7.827925 -1.240525 
-1.820609 15.200390 1.879713 
-1.820373 15.198419 1.879469 
-1.609396 15.210228 1.878007 
-1.608770 15.204306 1.877275 
-1.392042 15.207738 1.875082 
-1.393127 15.219599 1.876544 
-1.183152 15.237360 1.876544 
-1.184996 15.261109 1.879469 
-0.971550 15.272205 1.878982 
-0.970290 15.252394 1.876544 
-0.759804 15.262340 1.876300 
-0.759903 15.264322 1.876544 
-0.546635 15.271461 1.876300 
-0.546635 15.271461 1.876300 
-0.333272 15.273635 1.875813 
-0.333229 15.271650 1.875569 
-0.120002 15.278784 1.876057 
-0.119971 15.274815 1.875569 
0.090503 15.251196 1.872644 
0.090527 15.255166 1.873132 
0.302882 15.220659 1.869232 
0.302921 15.222644 1.869476 
0.512911 15.220988 1.869963 
0.511975 15.193213 1.866551 
-1.126549 9.405635 -1.163121 
-1.127966 9.417461 -1.164583 
-0.998431 9.436067 -1.165071 
-0.998640 9.438040 -1.165315 
-0.864213 9.441331 -1.164096 
-0.864756 9.447261 -1.164827 
-0.733957 9.452349 -1.164096 
-0.734264 9.456306 -1.164583 
-0.602666 9.473561 -1.165558 
-0.602162 9.465637 -1.164583 
-0.471793 9.477005 -1.165071 
-0.471991 9.480970 -1.165558 
-0.339783 9.492587 -1.166290 
-0.339570 9.486636 -1.165558 
-0.207256 9.498391 -1.166533 
-0.207126 9.492437 -1.165802 
-0.074570 9.494404 -1.165802 
-0.074617 9.500359 -1.166533 
0.056378 9.500484 -1.166533 
0.056354 9.496514 -1.166046 
0.188941 9.494802 -1.166046 
0.189099 9.502741 -1.167021 
0.320235 9.503198 -1.167508 
0.320502 9.511134 -1.168483 
-1.234737 10.308899 1.644439 
-1.233327 10.297131 1.642562 
-1.093315 10.332801 1.645691 
-1.093315 10.332801 1.645691 
-0.948214 10.359027 1.647568 
-0.946414 10.339355 1.644439 
-0.802545 10.335666 1.641936 
-0.803462 10.347483 1.643813 
-0.658409 10.349806 1.642562 
-0.659162 10.361634 1.644439 
-0.515450 10.353954 1.641936 
-0.515254 10.350009 1.641310 
-0.370836 10.360142 1.641936 
-0.370978 10.364090 1.642562 
-0.226322 10.372210 1.643188 
-0.225891 10.352460 1.640059 
-0.081264 10.346704 1.638807 
-0.081264 10.346704 1.638807 
0.061424 10.350792 1.639433 
0.061400 10.346841 1.638807 
0.205623 10.333125 1.636930 
0.205623 10.333125 1.636930 
0.348073 10.329308 1.636930 
0.347940 10.325359 1.636304 
-1.421182 11.865544 -1.045520 
-1.417154 11.831914 -1.042557 
-1.253256 11.844385 -1.042034 
-1.254094 11.852310 -1.042731 
-1.085327 11.856950 -1.041685 
-1.086417 11.868855 -1.042731 
-0.922207 11.876746 -1.042208 
-0.922361 11.878733 -1.042383 
-0.757051 11.900394 -1.043254 
-0.756545 11.892441 -1.042557 
-0.593792 11.927610 -1.044823 
-0.594584 11.943530 -1.046218 
-0.426129 11.904872 -1.042208 
-0.427056 11.930757 -1.044474 
-0.260652 11.945516 -1.045346 
-0.260609 11.943524 -1.045172 
-0.093779 11.940022 -1.044649 
-0.093826 11.945998 -1.045172 
0.070962 11.958111 -1.046218 
0.071021 11.968072 -1.047089 
0.238511 11.985834 -1.048832 
0.237956 11.957946 -1.046392 
0.403610 11.977424 -1.048484 
0.403208 11.965476 -1.047438 
-0.943250 7.875260 1.541737 
-0.943717 7.879159 1.542500 
-0.834579 7.887517 1.541737 
-0.834166 7.883612 1.540973 
-0.723708 7.906347 1.543263 
-0.723887 7.908302 1.543645 
-0.614933 7.919489 1.544026 
-0.615237 7.923404 1.544790 
-0.503802 7.919466 1.542500 
-0.503802 7.919466 1.542500 
-0.395246 7.939385 1.545171 
-0.395246 7.939385 1.545171 
-0.284146 7.938243 1.544026 
-0.283795 7.928433 1.542118 
-0.173240 7.939474 1.543645 
-0.173540 7.953214 1.546316 
-0.062494 7.956824 1.546698 
-0.062432 7.948972 1.545171 
0.047078 7.933371 1.542118 
0.047113 7.939261 1.543263 
0.158153 7.947643 1.545171 
0.158153 7.947643 1.545171 
0.267321 7.932935 1.542881 
0.266990 7.923124 1.540973 
-1.922264 16.049109 -0.847110 
-1.923689 16.061008 -0.847738 
-1.698279 16.050253 -0.845854 
-1.699330 16.060184 -0.846377 
-1.472122 16.082602 -0.846377 
-1.471394 16.074646 -0.845958 
-1.249313 16.089422 -0.845749 
-1.249468 16.091413 -0.845854 
-1.025309 16.117256 -0.846377 
-1.025562 16.121243 -0.846586 
-0.802793 16.125872 -0.846168 
-0.803389 16.137840 -0.846796 
-0.577849 16.143494 -0.846586 
-0.577706 16.139502 -0.846377 
-0.352481 16.153980 -0.846796 
-0.352307 16.145994 -0.846377 
-0.126965 16.165316 -0.847214 
-0.127122 16.185287 -0.848261 
0.095929 16.165531 -0.847214 
0.095882 16.157541 -0.846796 
0.322341 16.198559 -0.849099 
0.322341 16.198559 -0.849099 
0.545247 16.180597 -0.848471 
0.545046 16.174610 -0.848157 
-0.761768 6.360051 1.478828 
-0.762231 6.363921 1.479728 
-0.674415 6.373826 1.479728 
-0.674620 6.375763 1.480178 
-0.583177 6.371079 1.477029 
-0.582289 6.361376 1.474779 
-0.494676 6.370742 1.475229 
-0.495280 6.378514 1.477029 
-0.406544 6.390642 1.478378 
-0.405802 6.378973 1.475679 
-0.317231 6.372284 1.472980 
-0.317522 6.378123 1.474329 
-0.228717 6.389724 1.476129 
-0.228787 6.391672 1.476579 
-0.139480 6.392295 1.476129 
-0.139310 6.384502 1.474329 
-0.050170 6.387773 1.474779 
-0.050232 6.395568 1.476579 
0.037953 6.395652 1.476579 
0.037860 6.380063 1.472980 
0.126936 6.378912 1.472980 
0.127014 6.382809 1.473879 
0.214743 6.372661 1.472080 
0.215400 6.392137 1.476579 
-2.925557 24.425674 -0.429399 
-2.925557 24.425674 -0.429399 
-2.592714 24.503460 -0.430097 
-2.598396 24.557152 -0.431040 
-2.245875 24.535673 -0.430062 
-2.246057 24.537664 -0.430097 
-1.905050 24.534401 -0.429539 
-1.902883 24.506489 -0.429050 
-1.561041 24.538651 -0.429190 
-1.560406 24.528673 -0.429015 
-1.222562 24.557842 -0.429190 
-1.221369 24.533875 -0.428771 
-0.878918 24.554533 -0.428875 
-0.878202 24.534548 -0.428526 
-0.536259 24.576405 -0.429085 
-0.535736 24.552414 -0.428666 
-0.192658 24.529507 -0.428177 
-0.192721 24.537506 -0.428317 
0.145814 24.571825 -0.428910 
0.145921 24.589821 -0.429224 
0.489473 24.597383 -0.429434 
0.491343 24.691349 -0.431074 
0.831260 24.668238 -0.430830 
0.831867 24.686226 -0.431144 
-0.634781 5.299827 1.430234 
-0.634091 5.294072 1.428681 
-0.560022 5.292706 1.426093 
-0.560835 5.300390 1.428164 
-0.485321 5.302018 1.426611 
-0.486553 5.315484 1.430234 
-0.412621 5.313983 1.428164 
-0.411723 5.302427 1.425058 
-0.338140 5.315371 1.427128 
-0.338386 5.319226 1.428164 
-0.265206 5.327245 1.429199 
-0.264438 5.311810 1.425058 
-0.190109 5.311122 1.424022 
-0.190386 5.318845 1.426093 
-0.116104 5.320985 1.426093 
-0.116189 5.324848 1.427128 
-0.041740 5.314360 1.424022 
-0.041709 5.310496 1.422987 
0.031537 5.314430 1.424022 
0.031548 5.316362 1.424540 
0.105696 5.311541 1.423505 
0.105696 5.311541 1.423505 
0.178725 5.303786 1.421952 
0.178855 5.307648 1.422987 
-1.450244 4.933864 -1.377953 
-1.450789 4.935718 -1.378470 
-1.384847 4.966658 -1.381576 
-1.382772 4.959214 -1.379506 
-1.312410 4.974302 -1.378470 
-1.310438 4.966830 -1.376400 
-1.240963 4.984643 -1.376400 
-1.243297 4.994016 -1.378988 
-1.173000 5.005040 -1.377435 
-1.175645 5.016325 -1.380541 
-1.103051 5.016964 -1.376400 
-1.101392 5.009417 -1.374329 
-1.033774 5.031695 -1.376400 
-1.033385 5.029803 -1.375882 
-0.963782 5.047536 -1.376917 
-0.961608 5.036151 -1.373811 
-0.890863 5.047184 -1.373294 
-0.888512 5.033866 -1.369670 
-0.822428 5.066615 -1.375364 
-0.822428 5.066615 -1.375364 
-0.751360 5.069828 -1.373294 
-0.750227 5.062184 -1.371223 
-0.679988 5.075995 -1.372259 
-0.681527 5.087484 -1.375364 
-6.387040 21.729301 0.395332 
-6.333467 21.547041 0.392016 
-6.002466 21.527428 0.390096 
-6.001392 21.523575 0.390026 
-5.722227 21.688412 0.391527 
-7.848485 29.747366 0.537011 
-7.437696 29.875393 0.537395 
0.000000 0.000000 0.000000 
0.000000 0.000000 0.000000 
0.000000 0.000000 0.000000 
-6.382250 29.028139 0.518790 
-6.377097 29.004702 0.518371 
-6.005157 29.228943 0.520850 
0.000000 0.000000 0.000000 
0.000000 0.000000 0.000000 
-6.964273 36.473412 0.648147 
-6.448785 36.535587 0.647589 
0.000000 0.000000 0.000000 
-7.161641 44.119720 0.780192 
-7.138572 43.977604 0.777679 
0.000000 0.000000 0.000000 
0.000000 0.000000 0.000000 
0.000000 0.000000 0.000000 
0.000000 0.000000 0.000000 
-1.653619 5.625763 -1.353755 
-1.656916 5.636981 -1.356455 
-1.572816 5.640795 -1.351956 
-1.569152 5.627655 -1.348807 
-1.483465 5.622635 -1.342508 
-1.485453 5.630172 -1.344308 
-1.404816 5.642800 -1.342508 
-1.404816 5.642800 -1.342508 
-1.322879 5.644557 -1.338459 
-1.326437 5.659735 -1.342058 
-1.248695 5.679389 -1.342508 
-1.252042 5.694615 -1.346107 
-1.169094 5.690339 -1.341158 
-1.170663 5.697975 -1.342958 
-1.092454 5.721421 -1.344757 
-1.089530 5.706108 -1.341158 
-1.010432 5.724602 -1.342058 
-1.009755 5.720764 -1.341158 
-0.929534 5.726448 -1.339359 
-0.928285 5.718753 -1.337559 
-0.851062 5.742575 -1.340258 
-0.850491 5.738719 -1.339359 
-0.769507 5.744240 -1.338009 
-0.769765 5.746171 -1.338459 
-6.373626 21.683666 1.184467 
-6.320118 21.501627 1.174523 
-5.999981 21.518515 1.170755 
-5.996226 21.505047 1.170023 
-5.715255 21.661987 1.174105 
-11.054996 41.900700 2.271066 
-10.740061 43.140179 2.329892 
-11.163700 44.841831 2.421794 
0.000000 0.000000 0.000000 
0.000000 0.000000 0.000000 
-6.371472 28.979116 1.555006 
-6.368899 28.967413 1.554378 
-5.992615 29.167900 1.560554 
0.000000 0.000000 0.000000 
0.000000 0.000000 0.000000 
-6.947922 36.387779 1.941455 
-6.439887 36.485172 1.941664 
-14.193788 80.414894 4.279511 
-7.139795 43.985138 2.335335 
-7.122835 43.880650 2.329787 
-11.939512 80.562309 4.268207 
-7.609291 51.343975 2.720214 
-6.903078 51.530334 2.724715 
-7.881618 58.834969 3.110954 
-1.887395 6.421093 -1.300936 
-1.892378 6.438045 -1.304370 
-1.802304 6.463839 -1.304370 
-1.805995 6.477077 -1.307042 
-1.711879 6.488373 -1.304370 
-1.709876 6.480780 -1.302844 
-1.622543 6.517357 -1.305515 
-1.623966 6.523073 -1.306660 
-1.528946 6.523817 -1.302462 
-1.527602 6.518083 -1.301317 
-1.436745 6.534690 -1.300554 
-1.435902 6.530856 -1.299791 
-1.351251 6.576956 -1.305134 
-1.348881 6.565417 -1.302844 
-1.256345 6.579754 -1.302081 
-1.254872 6.572040 -1.300554 
-1.162990 6.588920 -1.300554 
-1.165038 6.600520 -1.302844 
-1.073921 6.615956 -1.302844 
-1.072663 6.608204 -1.301317 
-0.980010 6.612656 -1.299409 
-0.980874 6.618482 -1.300554 
-0.890716 6.649045 -1.303989 
-0.888630 6.633478 -1.300936 
-6.363143 21.648001 1.974078 
-6.300776 21.435822 1.954729 
-5.984817 21.464128 1.949500 
-5.989098 21.479483 1.950894 
-5.715044 21.661186 1.959958 
-5.748590 21.788332 1.971463 
-5.434672 21.829739 1.968151 
-5.426008 21.794937 1.965013 
-5.120445 21.848278 1.963270 
-5.114989 21.825001 1.961179 
-4.804603 21.852587 1.957518 
-4.797329 21.819506 1.954555 
-4.492424 21.866011 1.952986 
-4.488415 21.846495 1.951243 
-4.178469 21.883549 1.949151 
-4.172490 21.852236 1.946362 
-3.862476 21.882856 1.944096 
-3.857974 21.857349 1.941830 
-3.555607 21.904531 1.941481 
-3.554011 21.894697 1.940610 
-3.248583 21.919939 1.938692 
-3.243618 21.886435 1.935729 
-2.937719 21.929588 1.935729 
-2.937190 21.925638 1.935380 
-2.216578 7.541005 -1.244905 
-2.209337 7.516367 -1.240838 
-2.100462 7.533162 -1.238648 
-2.100462 7.533162 -1.238648 
-1.996086 7.565575 -1.239274 
-1.994070 7.557935 -1.238022 
-1.885487 7.573539 -1.236145 
-1.886919 7.579289 -1.237084 
-1.788099 7.629587 -1.241151 
-1.794860 7.658436 -1.245844 
-1.686552 7.670879 -1.243967 
-1.684007 7.659304 -1.242090 
-1.570292 7.643095 -1.235832 
-1.570690 7.645030 -1.236145 
-1.467130 7.683678 -1.238961 
-1.468241 7.689499 -1.239900 
-1.360049 7.705359 -1.239274 
-1.355929 7.682015 -1.235519 
-1.252732 7.717528 -1.238335 
-1.253998 7.725328 -1.239587 
-1.148233 7.747746 -1.240525 
-1.147943 7.745791 -1.240212 
-1.039946 7.763022 -1.240525 
-1.039683 7.761064 -1.240212 
-4.345798 14.784806 1.892143 
-4.344678 14.780997 1.891656 
-4.137880 14.840218 1.891656 
-4.134148 14.826833 1.889950 
-3.928756 14.890787 1.890925 
-3.937365 14.923417 1.895068 
-3.731015 14.986568 1.896287 
-3.724781 14.961526 1.893118 
-3.516330 15.003729 1.892143 
-3.514518 14.995998 1.891168 
-3.312114 15.064357 1.893850 
-3.309130 15.050785 1.892143 
-3.100501 15.091090 1.891656 
-3.097704 15.077479 1.889950 
-2.886888 15.119260 1.889950 
-2.887260 15.121210 1.890193 
-2.673784 15.148319 1.888731 
-2.671713 15.136590 1.887269 
-2.461489 15.164150 1.886294 
-2.463079 15.173947 1.887512 
-2.249267 15.177011 1.883856 
-2.245774 15.153447 1.880931 
-2.033190 15.177423 1.880200 
-2.032399 15.171520 1.879469 
-2.670849 9.086476 -1.162877 
-2.673088 9.094094 -1.163852 
-2.550120 9.145827 -1.165802 
-2.544788 9.126705 -1.163365 
-2.417111 9.161346 -1.163365 
-2.416099 9.157508 -1.162877 
-2.289922 9.198054 -1.163852 
-2.289922 9.198054 -1.163852 
-2.158355 9.209425 -1.161415 
-2.156544 9.201694 -1.160440 
-2.032879 9.246064 -1.162390 
-2.035863 9.259635 -1.164096 
-1.907202 9.282936 -1.163608 
-1.904805 9.271269 -1.162146 
-1.776289 9.302811 -1.162877 
-1.777778 9.310610 -1.163852 
-1.645193 9.320840 -1.162146 
-1.647263 9.332569 -1.163608 
-1.517160 9.346556 -1.162634 
-1.515570 9.336759 -1.161415 
-1.390186 9.380331 -1.164340 
-1.391059 9.386222 -1.165071 
-1.260925 9.412600 -1.166046 
-1.261189 9.414567 -1.166290 
-2.942440 10.010452 1.652574 
-2.944668 10.018033 1.653825 
-2.806629 10.065782 1.655077 
-2.805568 10.061975 1.654451 
-1.963330 7.441424 1.218937 
-1.959803 7.428054 1.216747 
-1.854468 7.448942 1.215809 
-1.849696 7.429774 1.212680 
-1.748884 7.462264 1.213931 
-1.742574 7.435338 1.209551 
-1.638195 7.450940 1.208300 
-1.636499 7.443223 1.207048 
-1.533718 7.465078 1.207048 
-1.530141 7.447664 1.204232 
-1.423412 7.454720 1.202042 
-1.421560 7.445018 1.200478 
0.000000 0.000000 0.000000 
-1.808821 10.247874 1.648193 
-1.666722 10.267940 1.647568 
-1.666089 10.264040 1.646942 
-1.522097 10.270404 1.644439 
-1.523255 10.278219 1.645691 
-1.379600 10.298486 1.645691 
-1.380649 10.306317 1.646942 
-3.358279 11.425175 -1.041860 
-3.356593 11.419440 -1.041337 
-3.201642 11.482465 -1.042906 
-3.203782 11.490142 -1.043603 
-3.043551 11.535680 -1.043777 
-3.045584 11.543386 -1.044474 
-2.882191 11.577050 -1.043777 
-2.885560 11.590584 -1.044997 
-2.723206 11.619568 -1.044126 
-2.728206 11.640905 -1.046043 
-2.558889 11.638496 -1.042557 
-2.562312 11.654064 -1.043952 
-2.400584 11.684381 -1.043603 
-2.402589 11.694139 -1.044474 
-2.242442 11.744158 -1.046043 
-2.241695 11.740244 -1.045695 
-2.076864 11.766475 -1.045346 
-2.081020 11.790019 -1.047438 
-1.918266 11.817591 -1.047438 
-1.922735 11.845124 -1.049878 
-1.748720 11.799557 -1.043603 
-1.750181 11.809411 -1.044474 
-1.586448 11.842570 -1.045346 
-1.586712 11.844545 -1.045520 
-2.195225 7.468358 1.513115 
-2.192456 7.458940 1.511207 
-2.083354 7.471805 1.507773 
-2.085991 7.481260 1.509681 
-2.027911 7.686197 1.545171 
-2.012886 7.629248 1.533723 
-1.914706 7.690901 1.540592 
-1.914231 7.688996 1.540210 
-1.807588 7.712746 1.539829 
-1.811172 7.728038 1.542881 
-1.704870 7.754192 1.543263 
-1.703184 7.746523 1.541737 
-1.592659 7.751962 1.538302 
-1.594635 7.761577 1.540210 
-1.486847 7.786942 1.540973 
-1.487584 7.790799 1.541737 
-1.377638 7.805009 1.540592 
-1.376273 7.797276 1.539065 
-1.269580 7.821323 1.540210 
-1.270209 7.825200 1.540973 
-1.163636 7.851679 1.542881 
-1.163061 7.847795 1.542118 
-1.052071 7.853539 1.540210 
-1.052593 7.857431 1.540973 
-4.534647 15.427288 -0.842714 
-4.526198 15.398545 -0.841143 
-4.318806 15.489098 -0.842714 
-4.324707 15.510261 -0.843865 
-4.111804 15.584580 -0.844702 
-4.110785 15.580718 -0.844493 
-3.900564 15.667604 -0.846168 
-3.896221 15.650162 -0.845226 
-3.680528 15.704338 -0.845330 
-3.680072 15.702394 -0.845226 
-3.464509 15.757493 -0.845540 
-3.468369 15.775048 -0.846482 
-3.252950 15.833108 -0.847110 
-3.252950 15.833108 -0.847110 
-3.027073 15.853441 -0.845854 
-3.028572 15.861289 -0.846272 
-2.811679 15.929564 -0.847738 
-2.811679 15.929564 -0.847738 
-2.589860 15.954988 -0.847110 
-2.596260 15.994416 -0.849203 
-2.378416 16.048449 -0.850250 
-2.378416 16.048449 -0.850250 
-2.146157 16.020706 -0.847110 
-2.143505 16.000910 -0.846063 
-1.805297 6.141786 1.477928 
-1.809143 6.154873 1.481078 
-1.721461 6.173902 1.479728 
-1.721461 6.173902 1.479728 
-1.634098 6.193566 1.478828 
-1.634595 6.195451 1.479278 
-1.548876 6.221451 1.480178 
-1.550288 6.227125 1.481528 
-1.462949 6.242216 1.480178 
-1.463394 6.244113 1.480628 
-1.377163 6.263696 1.480628 
-1.376744 6.261793 1.480178 
-1.292239 6.289724 1.482427 
-1.292239 6.289724 1.482427 
-1.202467 6.297583 1.480178 
-1.203929 6.305239 1.481978 
-1.116116 6.323353 1.482427 
-1.118148 6.334867 1.485127 
-1.026952 6.326599 1.479728 
-1.027576 6.330446 1.480628 
-0.940768 6.347868 1.481528 
-0.940768 6.347868 1.481528 
-0.852305 6.362316 1.481978 
-0.849976 6.344933 1.477928 
-6.394371 21.754242 -0.395786 
-6.331211 21.539366 -0.391876 
-6.018579 21.585215 -0.391143 
-6.023950 21.604477 -0.391492 
0.000000 0.000000 0.000000 
-6.201757 23.505930 -0.424338 
-5.875857 23.601871 -0.424547 
-5.878756 23.613514 -0.424757 
-5.560379 23.725422 -0.425350 
-5.565398 23.746838 -0.425734 
-5.241750 23.840845 -0.426083 
-5.246902 23.864283 -0.426502 
-4.922603 23.959820 -0.426956 
-4.935079 24.020542 -0.428038 
-4.601093 24.096926 -0.428212 
-4.607094 24.128353 -0.428771 
-4.265937 24.168665 -0.428387 
-4.269065 24.186388 -0.428701 
-3.933904 24.235054 -0.428561 
-3.931982 24.223211 -0.428352 
-3.599386 24.286991 -0.428561 
-3.596454 24.267210 -0.428212 
-3.258342 24.322987 -0.428352 
-3.262059 24.350735 -0.428841 
-1.504723 5.119208 1.429716 
-1.504723 5.119208 1.429716 
-1.433101 5.139719 1.429716 
-1.435177 5.147162 1.431787 
-1.361200 5.159227 1.429716 
-1.361200 5.159227 1.429716 
-1.287633 5.172105 1.428164 
-1.288567 5.175855 1.429199 
-1.219726 5.204414 1.432305 
-1.221489 5.211938 1.434375 
-1.147853 5.220737 1.432305 
-1.146194 5.213190 1.430234 
-1.075374 5.234174 1.431787 
-1.074985 5.232282 1.431269 
-1.001826 5.246781 1.431269 
-1.001101 5.242986 1.430234 
-0.927800 5.256453 1.430234 
-0.926457 5.248843 1.428164 
-0.855547 5.270652 1.430752 
-0.856167 5.274466 1.431787 
-0.781663 5.274303 1.428681 
-0.780814 5.268570 1.427128 
-0.707946 5.284703 1.428681 
-0.708459 5.288532 1.429716 
-2.265577 4.657494 -1.387788 
-2.268957 4.664443 -1.389858 
-2.198686 4.685174 -1.386752 
-2.200327 4.688673 -1.387788 
-2.129872 4.708376 -1.384682 
-2.129872 4.708376 -1.384682 
-2.067839 4.744378 -1.386752 
-2.067839 4.744378 -1.386752 
-2.004384 4.779913 -1.388823 
-2.001396 4.772787 -1.386752 
-1.931674 4.793098 -1.384682 
-1.931674 4.793098 -1.384682 
-1.869588 4.830086 -1.387788 
-1.866799 4.822879 -1.385717 
-1.799279 4.848474 -1.385717 
-1.797935 4.844851 -1.384682 
-1.728822 4.865841 -1.383647 
-1.727528 4.862201 -1.382611 
-1.660947 4.887386 -1.383129 
-1.659704 4.883728 -1.382094 
-1.593143 4.911938 -1.383647 
-1.597911 4.926639 -1.387788 
-1.530109 4.952160 -1.388823 
-1.530109 4.952160 -1.388823 
0.000000 0.000000 0.000000 
0.000000 0.000000 0.000000 
-7.019697 14.958254 0.288418 
-7.014599 14.947392 0.288209 
-6.806866 15.047518 0.288279 
0.000000 0.000000 0.000000 
0.000000 0.000000 0.000000 
0.000000 0.000000 0.000000 
-5.953669 14.197887 0.268732 
-5.868605 13.995034 0.264893 
-5.644975 14.006984 0.263601 
-5.635258 13.982872 0.263147 
-5.451315 14.083483 0.263601 
-5.475135 14.145023 0.264753 
0.000000 0.000000 0.000000 
-8.014801 21.597288 0.402103 
-7.695737 21.659981 0.401231 
-7.678331 21.610989 0.400323 
-7.365480 21.673147 0.399555 
-7.353898 21.639067 0.398927 
-7.033778 21.686373 0.397950 
-7.022673 21.652136 0.397321 
-6.706691 21.706043 0.396554 
-6.694884 21.667831 0.395855 
-2.568392 5.280010 -1.355555 
-2.568392 5.280010 -1.355555 
-2.491110 5.308300 -1.353755 
-2.495249 5.317120 -1.356005 
-2.420767 5.351441 -1.356005 
-2.423177 5.356768 -1.357355 
-2.347532 5.386096 -1.356455 
-2.339746 5.368231 -1.351956 
-2.269087 5.411159 -1.354655 
-2.269087 5.411159 -1.354655 
-2.192586 5.440505 -1.354205 
-2.191858 5.438697 -1.353755 
-2.114552 5.462949 -1.352406 
-2.112442 5.457497 -1.351056 
-2.036715 5.488286 -1.351506 
-2.038071 5.491940 -1.352406 
-1.960541 5.518024 -1.351956 
-1.957931 5.510680 -1.350156 
-1.878630 5.527925 -1.347907 
-1.884274 5.544531 -1.351956 
-1.806075 5.568446 -1.351506 
-1.806075 5.568446 -1.351506 
-1.723549 5.578225 -1.347907 
-1.728151 5.593120 -1.351506 
-10.469072 21.521952 1.254284 
-10.438495 21.459091 1.250620 
-10.107315 21.537653 1.246852 
-10.073376 21.465330 1.242665 
-9.747172 21.547472 1.239420 
-9.725770 21.500160 1.236699 
-9.403670 21.575453 1.233454 
-9.370154 21.498556 1.229058 
-5.904707 14.081129 0.800217 
-5.856821 13.966932 0.793727 
-5.638844 13.991771 0.790587 
-5.632872 13.976951 0.789750 
-5.444673 14.066324 0.790482 
-5.472070 14.137103 0.794460 
-8.018934 21.608425 1.207914 
-8.006426 21.574720 1.206030 
-7.689704 21.643002 1.203727 
-7.668307 21.582777 1.200377 
-7.352651 21.635395 1.197551 
-7.341725 21.603247 1.195772 
-7.025825 21.661852 1.193469 
-7.010420 21.614357 1.190852 
-6.660195 21.555563 1.182374 
-6.680831 21.622351 1.186037 
-2.959376 6.083781 -1.315056 
-2.961093 6.087312 -1.315819 
-2.877481 6.131616 -1.316582 
-2.875813 6.128062 -1.315819 
-2.788353 6.164040 -1.315056 
-2.788353 6.164040 -1.315056 
-2.704669 6.205498 -1.315819 
-2.707807 6.212697 -1.317345 
-2.616245 6.239035 -1.315056 
-2.616245 6.239035 -1.315056 
-2.529613 6.276776 -1.315437 
-2.528879 6.274955 -1.315056 
-2.440704 6.305564 -1.314292 
-2.436452 6.294579 -1.312003 
-2.346962 6.324303 -1.311239 
-2.346962 6.324303 -1.311239 
-2.258433 6.356455 -1.311239 
-2.263691 6.371254 -1.314292 
-2.165524 6.372118 -1.308187 
-2.160470 6.357247 -1.305134 
-2.079372 6.411070 -1.310095 
-2.074527 6.396130 -1.307042 
-1.985600 6.426347 -1.307423 
-1.982702 6.416968 -1.305515 
-10.441804 21.465895 2.088426 
-10.406943 21.394228 2.081454 
-10.082672 21.485140 2.076398 
-10.060665 21.438246 2.071866 
-9.725871 21.500381 2.064545 
-9.699594 21.442293 2.058967 
-9.374374 21.508238 2.052692 
-9.353677 21.460749 2.048160 
-5.884147 14.032097 1.331217 
-5.837148 13.920017 1.320584 
-5.625840 13.959504 1.316749 
-5.621372 13.948417 1.315703 
-5.440029 14.054325 1.318492 
-5.473831 14.141654 1.326685 
-8.002849 21.565081 2.012426 
-7.986905 21.522118 2.008417 
-7.666954 21.578966 2.003536 
-7.653613 21.541418 2.000050 
-7.342416 21.605282 1.996389 
